ply
format ascii 1.0
element vertex 694
property float x
property float y
property float z
property uchar red
property uchar green
property uchar blue
end_header
1.7123504877090454 -1.272071361541748 1.1310945749282837 180 167 156
1.7763309478759766 -1.2701629400253296 1.0669865608215332 182 170 156
1.8400206565856934 -1.268310308456421 1.0033957958221436 184 169 155
1.9195888042449951 -1.2746378183364868 0.9655153751373291 183 168 154
1.9876388311386108 -1.2749637365341187 0.9086589813232422 184 168 153
2.0585882663726807 -1.2766655683517456 0.8559308052062988 183 167 153
2.1299846172332764 -1.278495192527771 0.8034339547157288 183 167 153
2.190772294998169 -1.2756284475326538 0.7374574542045593 183 167 154
2.2657623291015625 -1.2789702415466309 0.6891481280326843 184 165 153
2.3372247219085693 -1.280704140663147 0.6361337304115295 184 165 153
2.4132285118103027 -1.2841682434082031 0.5875416994094849 182 163 148
2.5049283504486084 -1.2934916019439697 0.5536549687385559 181 162 148
2.585561513900757 -1.2981929779052734 0.5070396661758423 179 160 144
2.669710636138916 -1.3039449453353882 0.46245843172073364 178 157 142
2.7366130352020264 -1.3033379316329956 0.40210050344467163 176 155 140
2.833052158355713 -1.3129452466964722 0.3655102550983429 174 153 138
2.9195406436920166 -1.3187652826309204 0.31924739480018616 173 153 135
3.002997875213623 -1.323339819908142 0.269597589969635 171 151 131
3.0949554443359375 -1.330433964729309 0.224767804145813 169 149 131
3.1773102283477783 -1.3342381715774536 0.17235930263996124 168 148 129
3.2543723583221436 -1.3362901210784912 0.11606696248054504 165 147 126
3.3420913219451904 -1.341446876525879 0.06555819511413574 165 147 126
1.1863642930984497 -1.1963047981262207 1.6544140577316284 170 162 151
1.2556664943695068 -1.1962594985961914 1.594307780265808 171 163 152
1.3208295106887817 -1.1934136152267456 1.5227457284927368 172 164 153
1.3887887001037598 -1.192808747291565 1.4607967138290405 174 164 154
1.4483519792556763 -1.1871209144592285 1.3788180351257324 176 164 154
1.5150915384292603 -1.1863172054290771 1.3168551921844482 178 168 158
1.5752507448196411 -1.1819638013839722 1.2415237426757812 179 169 159
1.637266993522644 -1.1790684461593628 1.1724143028259277 181 170 160
1.7013705968856812 -1.1775541305541992 1.1089140176773071 182 171 161
1.774638056755066 -1.1807093620300293 1.0625611543655396 184 170 159
1.8464256525039673 -1.1829655170440674 1.0126606225967407 184 169 158
1.9090416431427002 -1.1809552907943726 0.9477840065956116 184 170 157
1.9720160961151123 -1.1792994737625122 0.8845000863075256 184 170 156
2.0577566623687744 -1.1873469352722168 0.8536311388015747 185 169 156
2.1212103366851807 -1.185867428779602 0.7908793091773987 185 169 155
2.1932694911956787 -1.1878939867019653 0.7395122051239014 184 168 155
2.266085624694824 -1.1901174783706665 0.6885481476783752 186 167 155
2.3365461826324463 -1.1913793087005615 0.6344571709632874 185 166 153
2.4028666019439697 -1.1911327838897705 0.5758471488952637 185 166 151
2.4922690391540527 -1.1988993883132935 0.5403077602386475 182 163 149
2.579875946044922 -1.20565927028656 0.5009154677391052 180 161 145
2.6600873470306396 -1.2096720933914185 0.453167587518692 180 159 144
2.7318358421325684 -1.210821509361267 0.39736104011535645 176 155 142
2.836498737335205 -1.222109079360962 0.3675381541252136 174 153 138
2.930889368057251 -1.22976553440094 0.32709866762161255 173 153 135
3.0034167766571045 -1.2306596040725708 0.26924818754196167 172 152 134
3.071955680847168 -1.230400562286377 0.20865467190742493 171 151 133
3.172487735748291 -1.2391343116760254 0.16869238018989563 169 149 131
3.254199504852295 -1.2423551082611084 0.11539760231971741 167 147 129
3.3450827598571777 -1.2479130029678345 0.0667237713932991 165 147 126
1.1539312601089478 -1.0823891162872314 1.5414354801177979 174 168 159
1.2518017292022705 -1.1027212142944336 1.5796873569488525 169 165 155
1.320006251335144 -1.1023424863815308 1.5180211067199707 171 165 156
1.3885433673858643 -1.102276086807251 1.4579617977142334 172 166 157
1.4478809833526611 -1.0972239971160889 1.3756409883499146 174 168 159
1.5115364789962769 -1.095011830329895 1.306802749633789 175 170 158
1.571549415588379 -1.0912683010101318 1.231838583946228 178 172 163
1.6369073390960693 -1.0904641151428223 1.1700677871704102 178 172 163
1.701790452003479 -1.0895729064941406 1.1081812381744385 180 173 161
1.7730251550674438 -1.091566562652588 1.0582809448242188 180 172 158
1.84825599193573 -1.0951142311096191 1.0143370628356934 181 171 159
1.9103435277938843 -1.0931777954101562 0.9485384821891785 183 170 157
1.9734922647476196 -1.0918426513671875 0.8854663968086243 185 171 157
2.0441811084747314 -1.093449592590332 0.8336934447288513 185 170 157
2.1054160594940186 -1.0916002988815308 0.7691656351089478 185 170 159
2.176518201828003 -1.093336820602417 0.7178195118904114 187 171 158
2.2561185359954834 -1.0978529453277588 0.6759520173072815 185 169 156
2.326876640319824 -1.0992542505264282 0.622870147228241 185 169 154
2.4065518379211426 -1.1034200191497803 0.5788107514381409 185 166 154
2.478135108947754 -1.1049044132232666 0.5255151391029358 184 164 155
2.5635013580322266 -1.110438585281372 0.48480919003486633 182 161 148
2.6545956134796143 -1.1173595190048218 0.44753801822662354 180 161 147
2.7305314540863037 -1.1196807622909546 0.39553406834602356 178 157 144
2.8256635665893555 -1.1271759271621704 0.35823434591293335 176 155 140
2.919574737548828 -1.1339994668960571 0.31791919469833374 174 153 138
2.9995036125183105 -1.1368770599365234 0.2658177614212036 172 151 136
3.0776026248931885 -1.1391836404800415 0.21184194087982178 172 152 134
3.147274971008301 -1.139321208000183 0.15203295648097992 169 149 131
3.256916046142578 -1.149182677268982 0.11647061258554459 167 149 130
3.3359711170196533 -1.1513781547546387 0.06098821759223938 166 146 126
0.8294969797134399 -0.7959417104721069 0.43737202882766724 127 112 103
1.2490570545196533 -1.0106195211410522 1.5685817003250122 169 165 155
1.3209761381149292 -1.0124939680099487 1.5184588432312012 170 166 156
1.3899829387664795 -1.0127538442611694 1.4596141576766968 169 168 157
1.4504706859588623 -1.0089733600616455 1.3800272941589355 173 169 159
1.5097970962524414 -1.0051178932189941 1.3009369373321533 171 172 160
1.5738986730575562 -1.0037659406661987 1.2351423501968384 174 173 162
1.6344552040100098 -1.0011351108551025 1.163527488708496 176 173 163
1.7026735544204712 -1.0018161535263062 1.1083195209503174 178 174 163
1.7711153030395508 -1.0025783777236938 1.053481936454773 179 174 162
1.8438197374343872 -1.0048773288726807 1.0056350231170654 178 173 160
1.9115244150161743 -1.0053044557571411 0.9491034746170044 179 171 158
1.9761402606964111 -1.00471031665802 0.8881514072418213 182 171 159
2.0347018241882324 -1.0022441148757935 0.8194407224655151 184 172 160
2.0932044982910156 -0.9999734163284302 0.7521482706069946 187 172 161
2.174129009246826 -1.0046738386154175 0.7138551473617554 188 171 161
2.2480576038360596 -1.0070664882659912 0.6655870079994202 187 170 160
2.3121402263641357 -1.0065590143203735 0.6057090163230896 185 171 157
2.395256996154785 -1.011354923248291 0.5661556124687195 187 168 156
2.4790046215057373 -1.0160773992538452 0.5255353450775146 185 166 154
2.567185640335083 -1.0217201709747314 0.4874482750892639 181 162 148
2.6534411907196045 -1.0266035795211792 0.4457477927207947 181 160 147
2.7419893741607666 -1.031825304031372 0.40439552068710327 178 157 144
2.827552318572998 -1.0360968112945557 0.35902756452560425 176 155 142
2.9202518463134766 -1.0418516397476196 0.3177511990070343 174 153 138
2.996077299118042 -1.0435172319412231 0.26273539662361145 172 152 136
3.0689480304718018 -1.044479250907898 0.20539985597133636 171 151 133
3.14247989654541 -1.045571208000183 0.14839187264442444 169 149 131
3.24070405960083 -1.0518805980682373 0.10613428801298141 168 150 131
3.3417775630950928 -1.058531641960144 0.0637587159872055 165 147 128
1.0510298013687134 -0.8529595732688904 1.187021255493164 169 156 151
1.2504545450210571 -0.9211376905441284 1.5703978538513184 170 166 158
1.32211172580719 -0.9226934313774109 1.5193716287612915 168 167 158
1.389451026916504 -0.9222841262817383 1.456022024154663 168 167 158
1.4524953365325928 -0.9202361106872559 1.3830136060714722 166 169 161
1.5153799057006836 -0.9184011220932007 1.3119010925292969 169 172 164
1.5731745958328247 -0.9149293899536133 1.2318538427352905 171 174 164
1.631030797958374 -0.9118580222129822 1.1550461053848267 175 176 166
1.6881412267684937 -0.9088613390922546 1.0795173645019531 177 176 165
1.7713193893432617 -0.9145711064338684 1.0524113178253174 176 176 162
1.8359936475753784 -0.9141490459442139 0.9913308024406433 179 174 162
1.9022839069366455 -0.9142895340919495 0.9334396719932556 179 174 162
1.950654149055481 -0.9093328714370728 0.8495678901672363 183 176 163
2.01838755607605 -0.9101243019104004 0.7957478165626526 184 174 160
2.0949418544769287 -0.9132587909698486 0.7533507943153381 189 174 163
2.1552250385284424 -0.9120293259620667 0.6895377039909363 187 172 161
2.2403769493103027 -0.9171314835548401 0.6556733250617981 186 171 160
2.3235127925872803 -0.9214699268341064 0.6173205375671387 186 169 159
2.397387981414795 -0.9234123826026917 0.5675008893013 185 169 156
2.480844497680664 -0.9274652004241943 0.5265125632286072 185 166 154
2.5649161338806152 -0.9314634203910828 0.4845270812511444 182 163 151
2.6523616313934326 -0.9360071420669556 0.4440251886844635 181 160 147
2.739988088607788 -0.9403834342956543 0.40198394656181335 179 158 145
2.8222033977508545 -0.9434618353843689 0.3540824353694916 176 155 142
2.9048116207122803 -0.946497917175293 0.305483341217041 177 154 141
3.0062906742095947 -0.9530918002128601 0.26935112476348877 172 151 138
3.0891494750976562 -0.9558668732643127 0.21838057041168213 169 149 131
3.1856865882873535 -0.9610844850540161 0.17532522976398468 168 147 132
3.265349864959717 -0.9630358219146729 0.12042278796434402 166 148 129
3.3516347408294678 -0.9661067128181458 0.06883546710014343 164 146 125
1.1858433485031128 -0.8324949741363525 1.6415330171585083 167 167 162
1.2527694702148438 -0.8319220542907715 1.5750672817230225 166 167 159
1.3186931610107422 -0.8311190009117126 1.5072081089019775 166 166 161
1.3871208429336548 -0.8313732147216797 1.4476561546325684 165 168 160
1.4610049724578857 -0.8335103392601013 1.4019923210144043 163 171 161
1.5161651372909546 -0.829502522945404 1.3118356466293335 167 173 164
1.5742374658584595 -0.8268301486968994 1.2323979139328003 169 175 165
1.6257473230361938 -0.8225520253181458 1.1428498029708862 172 178 169
1.6847106218338013 -0.8207764029502869 1.0715763568878174 177 180 170
1.7671799659729004 -0.825469434261322 1.0436947345733643 178 175 165
1.8273813724517822 -0.824137806892395 0.9757401943206787 180 177 164
1.8848936557769775 -0.8222944736480713 0.9051059484481812 181 176 164
1.9485608339309692 -0.82209312915802 0.8453155159950256 183 178 166
2.0155234336853027 -0.8227047324180603 0.7906689643859863 185 177 166
2.0916121006011963 -0.8253353238105774 0.7479416131973267 187 176 166
2.1583049297332764 -0.8258257508277893 0.6923267841339111 189 174 165
2.240422248840332 -0.8295192122459412 0.6547637581825256 187 172 161
2.3164772987365723 -0.8318087458610535 0.6086542010307312 187 170 160
2.3922717571258545 -0.8339498043060303 0.5612958073616028 186 169 159
2.4779558181762695 -0.8378762602806091 0.5228273272514343 183 166 156
2.5565991401672363 -0.8403251767158508 0.4759638011455536 182 162 153
2.6472091674804688 -0.8448193073272705 0.4387045204639435 180 161 149
2.736405372619629 -0.8488659262657166 0.3982505202293396 180 159 148
2.8321115970611572 -0.8538462519645691 0.36123189330101013 176 155 144
2.922577381134033 -0.8577448725700378 0.31814470887184143 173 152 141
3.02754807472229 -0.8638337850570679 0.2838108241558075 168 149 137
3.117797374725342 -0.8673441410064697 0.23703549802303314 166 145 130
3.2002336978912354 -0.8695195913314819 0.18399417400360107 166 145 130
3.2763688564300537 -0.8706779479980469 0.1264941394329071 164 145 129
3.34885573387146 -0.8712773323059082 0.0667116716504097 165 147 128
1.1816442012786865 -0.7405884861946106 1.6245468854904175 165 167 164
1.2503741979599 -0.7409555315971375 1.565077543258667 166 168 163
1.3218737840652466 -0.7421823740005493 1.513994812965393 166 168 163
1.3829792737960815 -0.740421712398529 1.4344918727874756 165 172 165
1.448263168334961 -0.7400301694869995 1.3685590028762817 166 173 166
1.515415072441101 -0.7402157783508301 1.3082475662231445 166 173 166
1.574256181716919 -0.73844313621521 1.2307052612304688 168 175 168
1.623038649559021 -0.7345757484436035 1.1358221769332886 172 178 169
1.6883857250213623 -0.7347437143325806 1.076969861984253 175 181 172
1.748413324356079 -0.733827531337738 1.0092486143112183 178 180 170
1.8262159824371338 -0.7366370558738708 0.9724779725074768 179 178 166
1.888628602027893 -0.7362798452377319 0.9096640944480896 181 178 165
1.9494668245315552 -0.7356987595558167 0.8454623222351074 184 179 167
2.0256474018096924 -0.7379860281944275 0.8035412430763245 185 178 167
2.085646867752075 -0.7373248338699341 0.7391005754470825 186 178 167
2.157318115234375 -0.738727867603302 0.6901050209999084 188 176 166
2.230786085128784 -0.7403779625892639 0.642586350440979 187 172 163
2.3060412406921387 -0.7422516345977783 0.5962517261505127 187 172 163
2.3767220973968506 -0.7433452010154724 0.5442314147949219 187 170 160
2.468595504760742 -0.7475997805595398 0.5127670764923096 184 167 157
2.5574591159820557 -0.7512161731719971 0.4759681522846222 183 162 151
2.6440789699554443 -0.7543553113937378 0.43517380952835083 181 160 149
2.735527276992798 -0.7580359578132629 0.3967821002006531 180 159 148
2.784527540206909 -0.7558247447013855 0.3228287398815155 177 156 145
2.9185147285461426 -0.7649667859077454 0.3144209086894989 169 147 139
3.0314252376556396 -0.7709919810295105 0.28591400384902954 169 148 137
3.1176154613494873 -0.7734077572822571 0.23628954589366913 167 146 133
3.2015774250030518 -0.7754715085029602 0.18425382673740387 165 146 132
3.2713534832000732 -0.7757679224014282 0.12290637940168381 162 146 129
3.3443992137908936 -0.7764660716056824 0.06363371759653091 163 148 128
1.1848880052566528 -0.6514331698417664 1.63277268409729 162 167 163
1.252024531364441 -0.6514692306518555 1.5676783323287964 163 168 167
1.317550539970398 -0.6512268781661987 1.4992585182189941 163 170 165
1.3816783428192139 -0.6507956385612488 1.4288830757141113 165 172 170
1.4422401189804077 -0.6497806906700134 1.3517203330993652 166 173 168
1.5068902969360352 -0.6496903300285339 1.2868340015411377 168 175 170
1.5717893838882446 -0.6497130393981934 1.223695993423462 169 174 169
1.6320446729660034 -0.6490052342414856 1.152241587638855 171 177 171
1.6849524974822998 -0.6472213268280029 1.0690338611602783 175 181 172
1.7500492334365845 -0.647529125213623 1.0107203722000122 178 180 171
1.822530746459961 -0.6489658355712891 0.965054452419281 178 179 168
1.8931145668029785 -0.6500697135925293 0.9153855443000793 179 179 167
1.9428229331970215 -0.6482425928115845 0.834550142288208 184 180 170
2.0204243659973145 -0.6503230333328247 0.7952054142951965 184 178 169
2.087584972381592 -0.6509543657302856 0.7405683398246765 184 179 167
2.158897876739502 -0.6521070003509521 0.6910446286201477 184 176 165
2.2375361919403076 -0.6541192531585693 0.6494839787483215 183 172 162
2.3191943168640137 -0.6564067006111145 0.6098122000694275 183 171 161
2.3976638317108154 -0.658234179019928 0.5651631951332092 182 170 160
2.480659246444702 -0.6605010032653809 0.5238194465637207 182 165 155
2.5648069381713867 -0.6628062129020691 0.48202332854270935 179 162 152
2.6435112953186035 -0.6644498705863953 0.4339086413383484 180 159 148
2.7557311058044434 -0.6694992780685425 0.41294485330581665 178 154 146
2.840346574783325 -0.671557605266571 0.36634406447410583 174 150 142
2.9209563732147217 -0.6731566190719604 0.31557756662368774 166 147 135
3.007366180419922 -0.6752692461013794 0.2681763470172882 166 145 134
3.116990566253662 -0.6794946789741516 0.23524613678455353 164 145 133
3.1761791706085205 -0.6789380311965942 0.1674971878528595 165 146 132
3.2574801445007324 -0.6804197430610657 0.11398842930793762 162 146 129
3.2916128635406494 -0.6777204275131226 0.03304503485560417 162 149 128
1.1818530559539795 -0.5608471035957336 1.619756817817688 162 168 169
1.2540346384048462 -0.5618909001350403 1.5713915824890137 162 168 169
1.3214404582977295 -0.5622261166572571 1.508073091506958 162 168 169
1.379177212715149 -0.5613245964050293 1.4200996160507202 163 172 172
1.4438207149505615 -0.5614433884620667 1.353623390197754 166 173 171
1.5022441148757935 -0.5608740448951721 1.2743357419967651 168 175 173
1.576484203338623 -0.5622090697288513 1.2320107221603394 167 174 170
1.6370757818222046 -0.5620030760765076 1.160693883895874 169 176 171
1.7061220407485962 -0.5627467036247253 1.1071959733963013 171 176 170
1.757401466369629 -0.5617056488990784 1.022238850593567 173 178 169
1.808767557144165 -0.5607985854148865 0.9409910440444946 179 181 172
1.8831591606140137 -0.5621389746665955 0.8986561894416809 177 178 169
1.9445815086364746 -0.5622680187225342 0.8359498381614685 179 180 169
2.014336347579956 -0.5631524324417114 0.7856826186180115 180 179 170
2.082063674926758 -0.563850462436676 0.7323163747787476 181 178 168
2.174490213394165 -0.5665555000305176 0.7092269659042358 179 175 165
2.236233711242676 -0.5667139887809753 0.6470105051994324 180 175 163
2.304220676422119 -0.5673790574073792 0.5924283266067505 182 174 163
2.4031450748443604 -0.5703544616699219 0.5699923038482666 180 168 158
2.4858639240264893 -0.5720278024673462 0.5281091332435608 181 166 157
2.578035593032837 -0.5743191838264465 0.49355629086494446 175 160 149
2.673825263977051 -0.5767801403999329 0.45990514755249023 177 157 148
2.7813472747802734 -0.5799472332000732 0.43362098932266235 173 151 145
2.8742730617523193 -0.5820358395576477 0.3924977481365204 168 148 139
2.9759109020233154 -0.584622859954834 0.35610565543174744 167 145 137
3.0675241947174072 -0.5864944458007812 0.31023943424224854 165 144 133
3.1369097232818604 -0.5869433879852295 0.24801120162010193 164 145 133
3.2234179973602295 -0.5884378552436829 0.19695577025413513 158 144 130
3.3229591846466064 -0.5906725525856018 0.15283039212226868 156 142 124
3.405991315841675 -0.5918878316879272 0.09760728478431702 153 142 123
1.1897025108337402 -0.4716804027557373 1.6435314416885376 158 169 170
1.2529407739639282 -0.4719116687774658 1.5654665231704712 160 169 171
1.3205020427703857 -0.47244566679000854 1.5030523538589478 159 168 170
1.3868193626403809 -0.47292089462280273 1.4382067918777466 160 169 171
1.455571174621582 -0.4735443592071533 1.380545735359192 164 168 172
1.5204169750213623 -0.4739677608013153 1.3141196966171265 166 172 174
1.5867329835891724 -0.47448277473449707 1.2521862983703613 167 171 173
1.6526501178741455 -0.47498899698257446 1.1902085542678833 167 172 172
1.722187876701355 -0.47567251324653625 1.1357613801956177 168 172 171
1.7864688634872437 -0.47611933946609497 1.0718976259231567 169 174 170
1.8309725522994995 -0.4757266640663147 0.9763358235359192 173 177 172
1.8925559520721436 -0.4761117398738861 0.9120064377784729 177 176 170
1.972902536392212 -0.4772723615169525 0.8762200474739075 174 177 169
2.04482102394104 -0.47807127237319946 0.8266357779502869 174 175 167
2.121293544769287 -0.4790361523628235 0.7823522090911865 173 172 165
2.203777313232422 -0.4802088439464569 0.7442394495010376 173 169 161
2.282141923904419 -0.4812053143978119 0.6994236707687378 171 167 157
2.3672540187835693 -0.4824252128601074 0.6608160138130188 169 165 157
2.44504451751709 -0.4833647310733795 0.6126963496208191 165 159 150
2.5391197204589844 -0.4848453402519226 0.5796962380409241 166 158 147
2.633209466934204 -0.4862917363643646 0.5441707372665405 162 154 141
2.719170093536377 -0.48744136095046997 0.4991471469402313 164 154 142
2.823246955871582 -0.4891512095928192 0.4678906798362732 161 149 139
2.911154270172119 -0.49031487107276917 0.42097213864326477 163 146 136
2.9887959957122803 -0.49114498496055603 0.3650752902030945 162 145 135
3.0593581199645996 -0.49175599217414856 0.3037847876548767 158 141 131
3.1689391136169434 -0.4935293197631836 0.2689048945903778 155 144 129
3.247004508972168 -0.4943455457687378 0.211355522274971 153 144 127
3.3270766735076904 -0.49521565437316895 0.15473246574401855 152 143 126
3.4041833877563477 -0.4959964156150818 0.09602944552898407 152 143 124
1.1864291429519653 -0.38150155544281006 1.6297231912612915 158 169 170
1.257171630859375 -0.38213714957237244 1.5760632753372192 162 168 171
1.3177900314331055 -0.3829742670059204 1.4929649829864502 162 168 171
1.3840421438217163 -0.38367992639541626 1.4286973476409912 163 171 176
1.4558583498001099 -0.384285569190979 1.3792473077774048 161 169 174
1.5144855976104736 -0.38509678840637207 1.2986780405044556 165 172 174
1.5754131078720093 -0.3858506381511688 1.226265549659729 167 173 175
1.6360427141189575 -0.3865913450717926 1.1554068326950073 169 175 176
1.7101707458496094 -0.3871583342552185 1.1117430925369263 168 173 172
1.7709670066833496 -0.38788098096847534 1.0432404279708862 170 173 169
1.8302570581436157 -0.38860630989074707 0.9738219976425171 172 177 171
1.8923155069351196 -0.3892928659915924 0.9103796482086182 176 177 173
1.9805340766906738 -0.389748752117157 0.8861899375915527 174 175 169
2.047577381134033 -0.3903985917568207 0.8293066024780273 174 175 167
2.1253774166107178 -0.3909691274166107 0.7865930795669556 172 173 164
2.1997976303100586 -0.39157330989837646 0.7383195757865906 175 171 163
2.2932136058807373 -0.3920670449733734 0.7113117575645447 171 167 159
2.373563051223755 -0.3926593065261841 0.6668140888214111 167 163 153
2.441779136657715 -0.39332467317581177 0.6084098815917969 167 162 150
2.5399012565612793 -0.39384666085243225 0.5796095728874207 164 159 147
2.637129545211792 -0.39439597725868225 0.547001302242279 162 154 143
2.716101884841919 -0.39503806829452515 0.49565455317497253 159 151 140
2.7473881244659424 -0.3958563208580017 0.40376120805740356 158 150 139
2.912724494934082 -0.39621371030807495 0.4214901328086853 156 146 136
3.0287718772888184 -0.39677664637565613 0.3943372070789337 151 143 132
3.0992586612701416 -0.39748427271842957 0.33143678307533264 148 140 129
3.158695936203003 -0.3982149660587311 0.2613915503025055 152 142 132
3.2263450622558594 -0.3989209532737732 0.19761839509010315 154 142 130
3.3115952014923096 -0.39959314465522766 0.14484550058841705 152 143 126
3.435969352722168 -0.40021368861198425 0.11355922371149063 148 139 122
0.8587384819984436 -0.32896366715431213 0.5218166708946228 81 72 66
0.9531014561653137 -0.3243729770183563 0.6312685012817383 161 172 173
1.0657124519348145 -0.3186548948287964 0.7700284123420715 163 173 177
1.1753021478652954 -0.3140000104904175 0.8741507530212402 162 172 176
1.3040258884429932 -0.308305561542511 1.0041600465774536 160 168 173
1.4837735891342163 -0.2991514801979065 1.2265647649765015 154 161 167
1.5556637048721313 -0.2994081676006317 1.1823787689208984 129 129 125
1.4070602655410767 -0.3158589005470276 0.6966579556465149 106 100 102
1.4766024351119995 -0.31553468108177185 0.6733699440956116 69 47 41
1.3731915950775146 -0.3267381191253662 0.34366822242736816 166 150 136
1.6241543292999268 -0.31459420919418335 0.6325429081916809 189 179 164
1.8399815559387207 -0.3057122230529785 0.8279030323028564 167 160 155
1.9979273080825806 -0.30099108815193176 0.9104229211807251 169 171 166
2.0591211318969727 -0.3020547926425934 0.8440901637077332 172 172 166
2.1280176639556885 -0.3026772439479828 0.7889515161514282 171 172 164
1.8784396648406982 -0.3194429874420166 0.3423350155353546 158 150 139
2.2749686241149902 -0.3034813702106476 0.6891356706619263 168 165 156
2.3680334091186523 -0.30299362540245056 0.6598026156425476 167 162 154
2.5005786418914795 -0.30080974102020264 0.668630838394165 161 156 144
2.6143431663513184 -0.29964831471443176 0.6519792079925537 154 148 139
2.638511896133423 -0.3023730218410492 0.5474662780761719 144 138 129
2.979459524154663 -0.29213738441467285 0.727104902267456 76 67 63
3.3997113704681396 -0.27954262495040894 0.9477911591529846 43 41 42
2.289027690887451 -0.32569098472595215 -0.07252365350723267 142 140 136
3.0137577056884766 -0.30178356170654297 0.3823911249637604 139 135 125
3.201772451400757 -0.29843369126319885 0.4034799039363861 138 129 121
3.250532865524292 -0.3001110553741455 0.32242679595947266 143 132 125
3.3131916522979736 -0.30126774311065674 0.2522113621234894 146 134 122
3.3861136436462402 -0.3020670413970947 0.18907757103443146 145 136 121
3.480006217956543 -0.3022058308124542 0.13804425299167633 142 131 116
0.9390842914581299 -0.25241711735725403 0.7907282710075378 157 131 110
1.471860408782959 -0.16169793903827667 2.235783338546753 98 63 50
1.3033068180084229 -0.2073027342557907 1.4469540119171143 78 46 32
1.163448691368103 -0.24266570806503296 0.8410342931747437 163 139 118
1.4620031118392944 -0.2051047682762146 1.3903344869613647 163 138 115
1.470670461654663 -0.21479324996471405 1.194798469543457 155 129 106
1.5295932292938232 -0.21646031737327576 1.1250563859939575 129 94 76
1.1315187215805054 -0.27913767099380493 0.14552083611488342 139 117 106
1.5907741785049438 -0.22670935094356537 0.8855162858963013 163 143 125
1.3611818552017212 -0.2628091871738434 0.3215384781360626 110 87 77
1.843631625175476 -0.2131202220916748 0.9932098388671875 62 33 35
1.8174033164978027 -0.22423283755779266 0.7916646599769592 99 66 53
2.2101945877075195 -0.18984779715538025 1.2194238901138306 121 86 66
2.263827085494995 -0.19293946027755737 1.125056266784668 119 86 71
2.2716972827911377 -0.20034798979759216 0.9747537970542908 132 93 81
2.5217580795288086 -0.18433250486850739 1.1318105459213257 123 79 62
2.5637869834899902 -0.18850530683994293 1.0235238075256348 135 91 67
2.622424364089966 -0.19097523391246796 0.9382089376449585 143 102 75
2.5149588584899902 -0.20744280517101288 0.6826584935188293 148 106 84
2.6781094074249268 -0.20062921941280365 0.7137979865074158 157 113 87
2.627045154571533 -0.2113286554813385 0.5359694957733154 151 107 81
3.0585474967956543 -0.18425460159778595 0.7959563136100769 73 63 64
3.216618299484253 -0.17928962409496307 0.7940186858177185 50 42 48
3.5836496353149414 -0.15955601632595062 0.950506329536438 39 31 37
3.694965124130249 -0.15898406505584717 0.8917645215988159 24 22 23
3.318263053894043 -0.19176393747329712 0.48538634181022644 39 34 33
3.130328893661499 -0.21023571491241455 0.24108922481536865 144 131 126
3.3355226516723633 -0.20240382850170135 0.2657827138900757 142 132 120
3.4181835651397705 -0.202712744474411 0.20776806771755219 141 130 115
3.5172204971313477 -0.2020442932844162 0.15863634645938873 138 127 112
1.2735384702682495 -0.08689890056848526 1.9148027896881104 55 27 16
1.1900392770767212 -0.1312052458524704 1.3607687950134277 183 145 126
1.1863547563552856 -0.1495099514722824 1.11081862449646 200 169 148
1.0549468994140625 -0.19649748504161835 0.5525444149971008 185 152 130
1.0287306308746338 -0.2142903208732605 0.3250523507595062 110 70 49
1.4561643600463867 -0.13258542120456696 1.1598656177520752 180 140 115
1.6185253858566284 -0.11343586444854736 1.3130301237106323 159 110 88
1.182892084121704 -0.21231649816036224 0.24692393839359283 93 52 29
1.56035315990448 -0.1515362411737442 0.827284038066864 204 185 160
1.7111014127731323 -0.13632841408252716 0.9340187907218933 196 178 157
1.4532769918441772 -0.19154414534568787 0.34864869713783264 173 151 137
2.393653154373169 -0.048134636133909225 1.6839845180511475 98 56 44
1.7112709283828735 -0.16856500506401062 0.48927873373031616 134 93 84
2.440121650695801 -0.06884080916643143 1.36663818359375 100 64 49
2.536365270614624 -0.06762062758207321 1.3176954984664917 87 53 37
2.6163058280944824 -0.06880488246679306 1.246731162071228 111 69 56
2.66337251663208 -0.07435590773820877 1.1380035877227783 135 90 67
2.7608397006988525 -0.07307246327400208 1.0890973806381226 140 92 67
2.8019161224365234 -0.07896524667739868 0.9797497391700745 147 96 70
2.801180839538574 -0.08957888185977936 0.8338634967803955 158 110 83
2.409202814102173 -0.14535588026046753 0.3324315547943115 174 133 115
3.5700042247772217 -0.021621374413371086 1.2457630634307861 30 25 27
2.457627773284912 -0.15547707676887512 0.15974177420139313 139 103 85
3.0004217624664307 -0.10473717749118805 0.4886326789855957 155 114 87
2.7285208702087402 -0.14149294793605804 0.1674925833940506 159 123 101
2.737330913543701 -0.14791418612003326 0.07290663570165634 116 82 62
3.181885242462158 -0.11123057454824448 0.27506211400032043 139 113 99
3.3738467693328857 -0.10067229717969894 0.2895030081272125 139 124 113
3.455702781677246 -0.10095085948705673 0.22972144186496735 138 127 112
3.5709660053253174 -0.09822053462266922 0.1886097937822342 136 122 108
1.319219946861267 0.027821119874715805 2.065518617630005 118 76 52
1.2659586668014526 -0.020169781520962715 1.5931316614151 188 147 127
1.2103058099746704 -0.06302189826965332 1.1770991086959839 210 179 158
1.3299839496612549 -0.04556904733181 1.277359962463379 138 84 64
1.3611403703689575 -0.05649391934275627 1.1389589309692383 103 57 40
1.1614618301391602 -0.13136261701583862 0.48514777421951294 209 170 144
1.8532705307006836 0.03974977880716324 1.8115324974060059 150 87 63
1.816220760345459 0.00873241201043129 1.508092999458313 163 106 75
1.5441505908966064 -0.07650244981050491 0.7956650257110596 221 190 164
1.6152775287628174 -0.07464183866977692 0.7647297978401184 216 198 177
1.7316316366195679 -0.06295223534107208 0.8060703873634338 135 108 90
0.9146849513053894 -0.2508693039417267 -0.6097882390022278 207 198 195
1.5998672246932983 -0.11696671694517136 0.3256068527698517 215 222 224
1.803016185760498 -0.08806904405355453 0.48805463314056396 199 202 209
1.5328792333602905 -0.15091900527477264 0.012304829433560371 194 198 202
1.2182554006576538 -0.21742719411849976 -0.47062450647354126 200 192 190
2.7776548862457275 0.05076190084218979 1.269443154335022 111 70 50
2.7910826206207275 0.03772081062197685 1.121179461479187 133 86 64
2.8404438495635986 0.03139603137969971 1.0187166929244995 139 90 68
2.824333429336548 0.014983601868152618 0.8556638360023499 151 103 78
2.9173965454101562 0.01640668325126171 0.8044328093528748 122 81 63
2.9376273155212402 0.006782967131584883 0.6876600980758667 49 26 23
3.0692138671875 0.01388111338019371 0.6693096160888672 152 106 76
3.1761012077331543 0.017041288316249847 0.6266932487487793 150 100 69
2.700336217880249 -0.060083068907260895 0.14577758312225342 192 150 126
2.5448806285858154 -0.0902368500828743 -0.06404001265764236 174 134 111
2.4793148040771484 -0.10712463408708572 -0.19688019156455994 159 112 89
2.936044454574585 -0.056959621608257294 0.010905534029006958 165 133 117
3.5174033641815186 0.00602874206379056 0.266187459230423 132 118 104
3.627817392349243 0.009120582602918148 0.22032952308654785 131 115 102
1.2223783731460571 0.08315790444612503 1.7368844747543335 139 97 75
1.2494674921035767 0.0626569539308548 1.5396478176116943 195 154 134
0.9509983658790588 -0.09012973308563232 0.4358546733856201 214 176 159
1.2848292589187622 0.02133217081427574 1.1561492681503296 192 139 115
1.736769676208496 0.16373182833194733 2.0577471256256104 58 23 22
1.3344895839691162 -0.006533503532409668 0.8786617517471313 205 170 145
1.8763264417648315 0.15251785516738892 1.8585784435272217 142 79 56
1.8466603755950928 0.11630766093730927 1.566927194595337 163 100 70
1.6194050312042236 0.0240427628159523 0.9347729086875916 210 167 138
1.5521602630615234 -0.014214961789548397 0.6529011726379395 220 205 178
1.4953008890151978 -0.04642301797866821 0.4157833158969879 132 98 87
1.5585107803344727 -0.04440031200647354 0.38703224062919617 180 107 111
1.4746578931808472 -0.07981280982494354 0.1419365406036377 101 53 58
1.430809497833252 -0.1028318852186203 -0.025181712582707405 189 164 162
1.6489357948303223 -0.06272076070308685 0.16231776773929596 218 208 208
1.8733667135238647 -0.024057134985923767 0.33267733454704285 208 210 212
2.5343222618103027 0.10733123868703842 0.9860327243804932 101 51 45
2.877734899520874 0.16284053027629852 1.2151058912277222 106 67 53
2.907499313354492 0.15058398246765137 1.0872578620910645 126 79 58
2.994443893432617 0.15037085115909576 1.021789789199829 126 82 56
3.2029943466186523 0.17347267270088196 1.0690994262695312 91 52 38
2.7653496265411377 0.0747600868344307 0.535104513168335 144 96 71
3.078350305557251 0.11752045154571533 0.6761041879653931 159 102 71
2.9912772178649902 0.0874873623251915 0.4799177348613739 171 120 92
2.891535758972168 0.05689752846956253 0.2881837785243988 186 146 123
3.0633432865142822 0.07309972494840622 0.30267223715782166 162 118 92
2.8424975872039795 0.02478772960603237 0.046192802488803864 152 97 68
3.259472131729126 0.0796288549900055 0.21565255522727966 130 109 98
3.5792062282562256 0.11672331392765045 0.30269238352775574 126 112 98
3.678999662399292 0.11893551796674728 0.24881085753440857 124 108 95
1.1835203170776367 0.1536216139793396 1.6035436391830444 157 115 93
1.174938440322876 0.11210930347442627 1.3070811033248901 209 172 154
1.0542584657669067 0.020476875826716423 0.7284325957298279 87 40 26
1.2667855024337769 0.0940036028623581 1.1066054105758667 193 142 114
1.9481332302093506 0.3645433485507965 2.5730152130126953 52 26 25
1.264119029045105 0.04026951268315315 0.7165746688842773 206 169 149
1.7719199657440186 0.2178809940814972 1.6342451572418213 144 85 62
1.8566135168075562 0.21976225078105927 1.5849099159240723 159 96 71
1.6966193914413452 0.1338670253753662 1.077389121055603 157 96 84
1.3806291818618774 0.002104163635522127 0.35139068961143494 165 94 93
1.7086704969406128 0.09238690882921219 0.7657990455627441 79 48 43
2.1243836879730225 0.2028575986623764 1.2622101306915283 157 75 78
1.4078078269958496 -0.037316106259822845 0.043564632534980774 118 50 48
2.2216434478759766 0.18533886969089508 1.0619866847991943 179 106 101
2.3310189247131348 0.1944691389799118 1.0471593141555786 172 100 95
2.0029714107513428 0.08472604304552078 0.4907830059528351 169 101 105
2.226511001586914 0.1263623833656311 0.6281007528305054 137 78 78
2.7625679969787598 0.2440681755542755 1.0876917839050293 75 35 28
3.0965776443481445 0.30483517050743103 1.2823247909545898 82 45 32
3.150726795196533 0.2955430746078491 1.1742167472839355 99 58 40
3.2173755168914795 0.289630651473999 1.0814588069915771 71 43 32
3.052945852279663 0.2325519174337387 0.7874704599380493 147 94 69
3.055755615234375 0.21487824618816376 0.6564401984214783 160 102 69
2.7824418544769287 0.1400841921567917 0.3142814636230469 193 148 125
2.8794331550598145 0.14507415890693665 0.2784693241119385 184 147 121
3.007838726043701 0.15601928532123566 0.26271307468414307 155 108 85
3.008610486984253 0.1416071057319641 0.15699467062950134 177 119 84
3.5355653762817383 0.22735808789730072 0.39023736119270325 121 106 95
3.6285414695739746 0.22882196307182312 0.33169034123420715 121 107 93
3.7222673892974854 0.23031273484230042 0.2727816104888916 120 104 91
1.1711256504058838 0.23424585163593292 1.5592339038848877 186 148 128
1.1535084247589111 0.18130266666412354 1.238661527633667 206 176 159
1.3546369075775146 0.2597433626651764 1.5816729068756104 138 84 64
0.8706797361373901 -0.039312638342380524 0.06070433929562569 198 163 140
1.9575728178024292 0.4922608435153961 2.593360424041748 49 26 25
1.3055803775787354 0.13143962621688843 0.8095859885215759 179 145 126
1.5728522539138794 0.22669868171215057 1.2087876796722412 118 65 47
1.4144642353057861 0.1276020109653473 0.7033008337020874 171 104 93
1.8132154941558838 0.26883289217948914 1.2932764291763306 168 114 88
1.5605740547180176 0.13902592658996582 0.6651893258094788 227 203 180
1.4746819734573364 0.08349452167749405 0.3797666132450104 81 38 35
1.9921190738677979 0.25260886549949646 1.0560970306396484 147 67 65
2.001190423965454 0.23019997775554657 0.9079501628875732 178 96 97
2.2678380012512207 0.29638347029685974 1.1242753267288208 183 101 99
2.2946324348449707 0.2796803414821625 0.9987475872039795 189 107 105
2.114330291748047 0.19907550513744354 0.626388430595398 148 67 65
2.4739766120910645 0.2876695394515991 0.9139217734336853 179 97 95
2.519259452819824 0.2781796455383301 0.8199419975280762 168 93 92
3.224804401397705 0.4567587375640869 1.414144515991211 68 37 27
3.243901252746582 0.43532538414001465 1.2645915746688843 81 49 35
3.1742618083953857 0.3914444148540497 1.0403826236724854 62 36 22
2.990577220916748 0.32053354382514954 0.7317028045654297 153 96 67
2.9303672313690186 0.2846984565258026 0.5511220693588257 166 112 85
2.6820857524871826 0.20478655397891998 0.234381303191185 200 163 139
3.001875877380371 0.2644200921058655 0.36933955550193787 171 129 105
2.6461734771728516 0.164284348487854 0.0060522849671542645 115 62 46
2.991180658340454 0.22752033174037933 0.14471663534641266 167 119 92
3.6020939350128174 0.34607937932014465 0.43178054690361023 116 101 90
3.6811578273773193 0.34456709027290344 0.36263978481292725 115 101 87
3.779534339904785 0.3471374213695526 0.3046834468841553 114 98 85
1.137786626815796 0.29700013995170593 1.4447606801986694 184 153 134
0.9231550693511963 0.10219791531562805 0.5263746976852417 210 173 155
1.3046760559082031 0.3185077905654907 1.4371923208236694 180 126 102
1.3754513263702393 0.3195232152938843 1.3889727592468262 71 42 35
1.94094717502594 0.6060899496078491 2.5499188899993896 51 28 27
1.4741144180297852 0.2975623309612274 1.1919466257095337 93 56 47
0.7098939418792725 -0.1348668485879898 -0.6277335286140442 213 179 158
1.4365949630737305 0.2121044248342514 0.7459595799446106 181 106 98
1.900038242340088 0.4030253291130066 1.4534544944763184 159 106 77
1.6510294675827026 0.2552136778831482 0.822161853313446 215 179 157
1.433223843574524 0.13323719799518585 0.31058409810066223 66 36 24
1.7358644008636475 0.23734430968761444 0.6583779454231262 147 61 66
1.9610896110534668 0.3024122714996338 0.8483031392097473 123 37 39
2.2626941204071045 0.39194342494010925 1.1159467697143555 174 87 88
2.3515515327453613 0.39610299468040466 1.071426510810852 177 90 92
2.245680570602417 0.3302615284919739 0.7863811254501343 145 61 62
2.5053422451019287 0.39516597986221313 0.9491928815841675 160 77 79
2.5262184143066406 0.3759443163871765 0.826570987701416 141 65 70
3.0373542308807373 0.5165991187095642 1.218651294708252 73 45 35
2.902923822402954 0.44600507616996765 0.9289479851722717 85 58 47
2.9612324237823486 0.4382474720478058 0.8414998650550842 36 12 4
2.9878458976745605 0.42153307795524597 0.7284345626831055 158 96 67
2.7841827869415283 0.33961793780326843 0.42855095863342285 187 138 111
2.733290433883667 0.30483344197273254 0.2741244435310364 191 157 137
3.0374693870544434 0.36833110451698303 0.39524781703948975 155 113 91
2.8653676509857178 0.30249062180519104 0.16060762107372284 148 88 65
3.3094379901885986 0.3987773656845093 0.35735204815864563 117 90 78
3.635404109954834 0.46053484082221985 0.4522329568862915 111 96 87
3.7389419078826904 0.46471768617630005 0.39667072892189026 110 94 81
3.8382630348205566 0.46765410900115967 0.33739563822746277 110 91 79
1.1433438062667847 0.3859623074531555 1.4608025550842285 199 165 149
1.1523691415786743 0.3409584164619446 1.230634093284607 104 50 40
1.2195671796798706 0.34375888109207153 1.1930158138275146 183 140 114
1.771304965019226 0.6781254410743713 2.4287688732147217 57 34 31
1.945875644683838 0.7313988208770752 2.5592246055603027 52 31 29
1.7721483707427979 0.5653449296951294 1.8686540126800537 90 58 51
1.2118747234344482 0.19043323397636414 0.4383126199245453 169 133 113
1.8970134258270264 0.5425152778625488 1.6596883535385132 151 81 66
1.5806677341461182 0.33181440830230713 0.8569622039794922 160 92 79
1.5422385931015015 0.28026407957077026 0.6306949853897095 196 167 145
1.21578848361969 0.09307501465082169 -0.0476510263979435 144 93 92
2.0567784309387207 0.465150386095047 1.1534382104873657 124 70 66
2.2649238109588623 0.5247896909713745 1.289736032485962 97 54 42
2.341576099395752 0.5231942534446716 1.2230640649795532 119 66 55
2.547485589981079 0.5754233002662659 1.3243165016174316 118 66 52
2.7134621143341064 0.6079339385032654 1.3583619594573975 115 67 54
2.6857831478118896 0.563075065612793 1.1570488214492798 127 78 61
2.8069231510162354 0.5769399404525757 1.1329684257507324 126 75 57
2.8525969982147217 0.5624539256095886 1.0260965824127197 126 82 59
2.9756882190704346 0.5760785937309265 0.9993293881416321 114 71 52
3.0665316581726074 0.5778239369392395 0.9383516907691956 112 76 58
2.9358386993408203 0.5059193968772888 0.6818380951881409 156 97 69
2.6589231491088867 0.39089149236679077 0.3234902620315552 191 150 127
2.8850252628326416 0.43986982107162476 0.39313799142837524 172 136 114
2.992802143096924 0.45008182525634766 0.36118024587631226 150 104 88
3.138911008834839 0.471113383769989 0.35351163148880005 165 107 74
3.5401601791381836 0.5649088025093079 0.5112244486808777 102 85 77
3.6900253295898438 0.5830186009407043 0.48618242144584656 107 87 78
3.805509567260742 0.590737521648407 0.4359493553638458 105 86 74
3.8950555324554443 0.5910765528678894 0.3689896762371063 105 84 71
1.0436731576919556 0.3790891468524933 1.1245195865631104 199 165 149
1.3054879903793335 0.5524163842201233 1.6996288299560547 126 78 59
0.847740650177002 0.12460793554782867 0.13481944799423218 202 187 166
1.8418656587600708 0.8481051325798035 2.6115524768829346 55 34 32
1.9116235971450806 0.8291507363319397 2.4727978706359863 55 34 32
1.900746464729309 0.75728839635849 2.1590442657470703 91 61 60
1.2317588329315186 0.26750245690345764 0.47928205132484436 211 184 163
1.9289090633392334 0.6644518971443176 1.7211670875549316 144 87 63
1.9876928329467773 0.6504854559898376 1.613234519958496 148 90 67
1.6273787021636963 0.40224114060401917 0.7782387137413025 132 76 63
1.8526571989059448 0.48986852169036865 0.9973491430282593 159 110 87
1.899390697479248 0.4781629145145416 0.9088419675827026 180 130 103
1.953019380569458 0.4707365930080414 0.8342013955116272 183 132 105
1.970046043395996 0.4463072121143341 0.7115625739097595 179 128 101
2.0491769313812256 0.4522276520729065 0.6770886182785034 163 113 85
2.281756639480591 0.5260031819343567 0.8284749388694763 186 136 110
2.2513859272003174 0.48165878653526306 0.6531077027320862 134 84 58
2.3538403511047363 0.49543890357017517 0.6358833909034729 128 78 52
2.5643739700317383 0.5518710613250732 0.7265224456787109 131 83 60
2.6827173233032227 0.5687852501869202 0.7110960483551025 140 91 69
2.809972047805786 0.5880292057991028 0.6992424130439758 139 101 73
2.950685501098633 0.6110721826553345 0.6940411925315857 109 68 47
2.800412893295288 0.5286833047866821 0.44058042764663696 173 136 118
2.9108545780181885 0.5414807796478271 0.41279205679893494 168 130 111
2.7087748050689697 0.44773775339126587 0.14837965369224548 142 93 71
2.9449849128723145 0.5033833384513855 0.2156950682401657 164 111 83
3.672569513320923 0.7140759825706482 0.5991729497909546 99 79 70
3.7533442974090576 0.7115622758865356 0.525623083114624 101 80 69
3.839777708053589 0.710861325263977 0.45583686232566833 101 80 67
3.9416422843933105 0.7147613763809204 0.39477765560150146 100 79 68
0.8391794562339783 0.2487705796957016 0.43812233209609985 189 151 136
1.2407745122909546 0.5840744376182556 1.4980089664459229 171 125 98
1.3528608083724976 0.6222243309020996 1.567160725593567 107 92 80
1.829671025276184 0.9594341516494751 2.5765671730041504 56 38 33
1.7523953914642334 0.8236802816390991 2.081352472305298 89 64 63
1.9108480215072632 0.8777427673339844 2.1796467304229736 92 65 60
1.3857614994049072 0.4420289993286133 0.8048694729804993 193 164 150
1.7405191659927368 0.6414018869400024 1.3452352285385132 154 103 78
1.9769725799560547 0.746435821056366 1.591515064239502 152 94 69
1.8975863456726074 0.6475776433944702 1.24879789352417 128 67 54
2.1310579776763916 0.741746187210083 1.4529603719711304 159 99 74
2.1221141815185547 0.690815806388855 1.2516402006149292 170 113 87
2.1761951446533203 0.6781244277954102 1.1578470468521118 175 119 93
2.2590062618255615 0.6814102530479431 1.1071243286132812 178 120 94
2.3170738220214844 0.6718810200691223 1.0231719017028809 178 122 96
2.404958963394165 0.6775380373001099 0.9782131314277649 176 121 92
2.480924129486084 0.6771370768547058 0.9177190661430359 174 119 90
2.5792391300201416 0.6869319677352905 0.8815992474555969 173 118 88
2.6449811458587646 0.6816454529762268 0.8090490698814392 173 116 83
2.729081153869629 0.6845168471336365 0.7556326389312744 176 117 87
2.7662160396575928 0.6676185727119446 0.657766580581665 175 121 90
1.930893063545227 0.2988475561141968 -0.20293010771274567 202 168 150
2.7855544090270996 0.6149601936340332 0.4274693727493286 163 128 113
2.9137206077575684 0.6360318660736084 0.4143317937850952 164 126 107
2.506061315536499 0.4565841853618622 -0.0035756581928581 114 62 41
2.968709707260132 0.6018204689025879 0.2318412959575653 105 74 61
3.715503454208374 0.8400058746337891 0.6271752119064331 96 74 66
3.793673276901245 0.8360589742660522 0.5504739284515381 97 76 65
3.88332462310791 0.8361220955848694 0.4812743663787842 97 76 63
3.975196123123169 0.8368719220161438 0.41316214203834534 96 75 64
1.361069917678833 0.8783646821975708 2.1808037757873535 96 51 40
1.1316708326339722 0.5593871474266052 1.1602842807769775 172 128 108
1.5250910520553589 0.878385066986084 2.0532941818237305 62 46 43
1.7437357902526855 1.0020201206207275 2.347932815551758 55 41 40
1.7638843059539795 0.9420766830444336 2.1069464683532715 64 45 43
1.8373829126358032 0.9315818548202515 2.010327100753784 77 54 52
1.4353446960449219 0.5552665591239929 0.9085785150527954 169 134 122
1.2801425457000732 0.3958328366279602 0.43003129959106445 132 90 73
1.8541345596313477 0.762389063835144 1.3613409996032715 154 99 75
2.057182550430298 0.8481696248054504 1.5258259773254395 138 77 55
2.0629167556762695 0.79981529712677 1.3396133184432983 168 110 84
2.0789542198181152 0.7616263628005981 1.1835945844650269 180 124 98
2.1300113201141357 0.7471179366111755 1.0893453359603882 177 124 99
2.1966140270233154 0.7425243854522705 1.0202714204788208 184 129 104
2.271151065826416 0.7425857782363892 0.9625226855278015 175 118 94
2.3841331005096436 0.7630651593208313 0.9516149163246155 178 121 95
2.503695249557495 0.785514235496521 0.9429925084114075 172 116 87
2.5926241874694824 0.791208803653717 0.8952224850654602 170 111 83
2.7232728004455566 0.816621720790863 0.8891165256500244 168 109 81
2.8140628337860107 0.8218029141426086 0.8379688262939453 168 106 77
2.7901909351348877 0.7746084928512573 0.6791454553604126 170 113 82
2.228397846221924 0.4930591881275177 0.057867199182510376 194 163 142
2.757415533065796 0.6944432854652405 0.40331828594207764 167 136 122
2.911205530166626 0.7284810543060303 0.41163015365600586 156 115 97
3.0171611309051514 0.7412744760513306 0.377298504114151 151 93 67
3.5162389278411865 0.9086412787437439 0.6181754469871521 95 72 61
3.727670192718506 0.9567586779594421 0.6345723867416382 93 71 63
3.8250741958618164 0.9596452713012695 0.5696550011634827 93 72 61
3.9159114360809326 0.9599465131759644 0.5001283288002014 93 72 61
3.9958131313323975 0.9562827348709106 0.42420414090156555 95 72 59
1.1876972913742065 0.776543915271759 1.5986016988754272 108 67 46
0.7891777157783508 0.2580786347389221 0.10641485452651978 200 194 174
1.6778907775878906 1.1410213708877563 2.483663320541382 43 38 36
1.8252956867218018 1.1958401203155518 2.5592732429504395 55 43 43
1.9103596210479736 1.186862587928772 2.461656093597412 58 45 42
1.9971798658370972 1.1802676916122437 2.370954990386963 60 45 44
1.6454873085021973 0.808535099029541 1.3525590896606445 103 74 63
1.1440024375915527 0.35278111696243286 0.15884867310523987 211 183 163
1.8171124458312988 0.8293206095695496 1.2908966541290283 147 96 72
1.9631580114364624 0.8820064067840576 1.3601492643356323 134 78 56
1.8318489789962769 0.73726487159729 0.9592223763465881 128 76 55
2.0138516426086426 0.8133373260498047 1.0817495584487915 128 75 55
